ply
format ascii 1.0
element vertex 691
property double x
property double y
property double z
property uchar red
property uchar green
property uchar blue
end_header
0.1897565620185669 0.0745711353259814 1.2359945849103333 216 101 12
0.2126256475763457 0.3211019843079447 1.2340318913158723 224 222 209
0.1755525675606993 0.1648710250772223 1.1371904750983992 179 143 81
0.0542989686360888 0.2020124440243475 1.3350594523040740 251 199 89
0.1388440356224863 0.4649499088683564 1.1776132001011761 247 201 139
0.2577201997555914 0.2234030836451655 1.2754441368798932 248 203 120
0.1020849573204295 0.3513720434779858 1.0248296461766813 217 149 48
0.1763291448902414 0.2860050308798548 1.1668642204253958 114 55 0
0.0798392981866215 0.4654164462339057 1.0347098930676288 231 144 11
0.1781970217989478 0.2248462276337174 1.1517989352714133 217 181 87
-0.2968537924657902 0.1806586683233339 1.0981072979384197 151 74 2
0.2599097557969859 0.2246997181596209 1.2803990677132167 158 102 0
0.2271052985486505 0.0893877921335012 1.2108658019941934 250 213 133
-0.2056397003531633 0.0665213402622218 1.1488425777185904 250 244 210
0.1950491173984731 0.0857088439064144 1.1072535183788570 206 162 53
0.2060011944091147 0.1263208616898461 1.1691027242152938 132 96 34
0.2030488248530272 0.0893270731617991 1.2816517550691313 198 82 0
0.1519604235682381 0.0830728225556733 1.0239228121667030 246 241 221
-0.2748932320071595 0.0911584115733757 1.0765275317556691 161 101 51
0.1245305100519326 0.4012894459557300 1.1266511157522350 147 125 76
0.2471739563940150 0.3224460756517036 1.2887914450830502 228 210 170
-0.2403768366269956 0.3879406285070480 1.2467701885628428 228 168 58
-0.2302419905937760 0.2405242452500310 1.2113214637420966 163 111 2
0.1188292620711244 0.2992454039144146 1.0408137068084600 224 156 13
0.1264320420014623 0.1841609109986752 0.9981617906065082 231 203 164
0.2287608923858605 0.1340655881787570 1.2027683536289044 149 119 65
-0.1170303684651195 0.1670480904094081 1.2182150746211586 170 101 6
0.0721856211154647 0.0473699192338796 1.2777022731238941 239 211 187
0.2287608923858605 0.1340655881787570 1.2027683536289044 149 119 65
0.1103722140579227 0.3288214326167617 1.0388197316621592 234 166 85
0.0953459487858269 0.2000944727489793 0.9722047332129363 248 209 150
0.2481031488048487 0.1976259694295019 1.2978187089960420 172 93 0
0.0662724200635042 0.0356530786291309 1.2294966076080269 252 208 161
0.1529220992898344 0.1740952348358648 1.0561273313147508 214 199 158
0.1297368456355242 0.4247511782551587 1.0973483406079165 240 177 84
0.1331920502323320 0.0514841782379792 1.1903358356747036 189 72 2
0.0972682622525636 0.2101865010489571 0.9765333506822195 233 197 135
0.1737935699176761 0.1814459131590636 1.1387387676416409 129 74 7
0.1954474782011252 0.1516328753068428 1.1633841423834541 182 125 0
-0.2069874974104889 0.0686803953585218 1.1167915459582272 247 204 149
0.1032257159725526 0.2280830323126467 0.9911070796147777 232 198 134
0.0618595574909288 -0.0318414840818021 0.9968617765327114 196 114 32
0.2138570798844223 0.2461214380273680 1.2171893396628828 210 188 138
0.1733374384374934 0.1868203323183197 1.1414939846311358 206 172 98
0.2499894225890011 0.1526659641734295 1.2482252577712838 201 170 106
0.2615142659219005 0.1872531515630013 1.2740095205701156 236 219 193
0.1444895285480284 0.1511929900972305 1.0354370821783290 77 49 10
0.1465379591281079 0.1501878888282129 1.0404754536423135 189 139 50
0.1491192180706977 0.0761277132151246 1.0134697382355420 247 235 193
-0.1092202729392033 -0.0182995077704578 1.0718711702280279 248 193 128
0.1107540226707903 0.2499632105745062 1.0166968173162361 237 200 147
0.0416602880623910 0.2857826198595914 0.9444261267130237 139 102 32
0.1851386860698784 0.0893857083506682 1.3113441694873702 253 195 72
0.2491793721766945 0.2037616950050005 1.2989867450012547 137 59 0
-0.1083191608763351 0.3484228307025377 1.3197124419791140 145 116 76
0.1262918924430491 0.4662649499241827 1.1347458569354663 223 184 115
0.1358439670434074 0.2961855686517782 1.0641920718306535 229 192 137
0.0840907868083256 0.3732539278272984 1.0039552088250245 247 199 125
0.1725274970502244 0.3993047678487360 1.1978264893355901 236 204 147
0.1461646498543090 0.2072534499280721 1.0563376785791689 238 225 217
0.2375430001603392 0.1938417738168719 1.2346040695273706 224 214 187
0.1270919303261484 0.4036189077498544 1.1335153999710859 236 179 102
0.2545205554787104 0.2401626185715322 1.2775151377482279 232 217 186
0.2174903743490898 0.4180905201408530 1.2888100986709521 243 190 114
0.1147572890224804 -0.0090578139758419 1.0030365026494876 255 230 182
-0.0967985132655231 0.3703406107676510 1.3413471418037239 92 51 5
0.1958976051225021 0.2160612513140763 1.1746160801785757 188 169 129
0.2352048526626995 0.3039808135993407 1.2679536337717130 211 177 132
0.1106693976999267 0.0201332405420337 0.9175463460968284 217 117 5
-0.2929564389808829 0.3945412402109538 1.1693110063352279 227 161 13
0.1646703012801930 0.3768092745757073 1.1891515599629723 121 67 0
0.1799337420341383 0.1772150074529823 1.3364234157006727 180 104 0
0.2120192421988049 0.1268022374188938 1.1758860880225914 127 101 50
0.1061207602446317 0.1706503823669032 0.9715544145822509 230 186 87
0.1674745091095776 0.3802037316230119 1.1865064616929006 196 150 54
0.1324128318461873 0.3961266505104852 1.1390152886027105 216 150 56
0.2608912834421486 0.1936334546782458 1.2733652961038586 246 223 192
0.0954192455684742 0.2701203826247988 0.9966679676730776 185 108 0
0.1954474782011252 0.1516328753068428 1.1633841423834541 182 125 0
-0.0166907836375526 -0.0220274714038829 1.0040080996755263 239 191 106
-0.0351859108687226 0.3702657903890764 1.3210810541946152 155 125 65
0.1410012547358120 0.0448925969141049 0.9676874859761726 134 84 0
0.1715896192430097 0.0756122249236701 1.2717410124402029 177 58 2
0.0645920499738906 0.0536474305894247 1.3017933077923296 252 245 217
0.1803575473685966 0.2544702586755079 1.1710614022492416 216 191 135
0.0835201843533393 -0.0290416268623158 1.0100760506436073 211 113 14
0.2146410256067962 0.0778783463914139 1.2294042325432155 255 205 90
0.1303157453706843 0.0566486203586663 0.9707114313539691 139 82 11
0.1561650673676392 0.0755964888000415 1.0303503093112401 255 225 175
0.1077517072588402 0.2093619568666871 0.9966557805234196 221 172 105
0.1649920386743292 0.1087667677375246 1.0526118659880812 255 232 187
0.1724563166239950 0.1819037388343588 1.1393126381139558 105 42 0
0.1108436265124466 0.4484202732304207 1.0635005084285638 217 134 16
0.1213335590724749 0.4637725950765113 1.1397563373217665 170 124 26
0.2515841307528856 0.2340985548326018 1.2706824870497928 237 199 124
0.2242315989384235 0.1705448307463107 1.2099680343256891 180 130 0
0.1776737074296647 0.2863222845306658 1.1772395015603956 141 86 22
0.0964278129829315 0.2246895799045987 0.9748837294130046 234 183 91
0.1307559644718622 0.3282795291795537 1.0650029290347056 221 182 105
0.1843074421084056 0.0661104437615550 1.2082864680361325 188 91 56
0.2076869751697462 0.0731618145833770 1.2080782365283893 179 85 23
0.2319837079074784 0.0952611813559140 1.2047765476387682 196 108 19
0.2167553125344011 0.1027946381770527 1.1618876593022609 162 113 20
-0.2533473234243757 0.4019140862907746 1.2345091990457187 140 89 23
0.0899358021898543 0.1812163779293095 1.3419811489812721 177 86 3
0.1772366278511003 0.2926828511209978 1.3474051845081916 82 21 0
0.0895002346628793 0.4800160948266359 1.0426985462238614 255 200 127
0.0965101118183332 -0.0292327328160928 1.0380357504675586 201 118 42
0.1137126001849249 0.3424421743643353 1.0407644418532871 255 193 75
0.1010589473438227 0.3582234529334062 1.0256309345690862 254 208 123
0.1963186542673477 0.0797040251275031 1.2720020779261207 253 196 81
0.1286330415083014 0.2384570424620189 1.0394741968842454 171 104 0
0.1722273239754075 0.2070804686678243 1.1456642520755131 213 181 106
0.1147821301951053 0.2287278514584227 1.3475600102171521 76 83 76
-0.1144598184902810 0.4303071088764452 1.3338560101915471 149 85 0
0.1050605287600425 -0.0211375485671797 1.0167886454554977 234 134 22
0.1172320173067913 0.0117520082362639 0.9389284856431395 200 113 33
0.1306001602656453 0.3206999820950758 1.0683899389787295 224 190 129
0.2003345953351749 0.0835676819295802 1.2788903541216963 252 213 96
0.1887067739857671 0.3848762995027545 1.3414686197424086 236 158 6
0.2233944312242880 0.0830611940360872 1.2384676126303926 253 206 116
0.1281925706884108 0.0345269234816911 0.9300463931063627 208 174 111
0.2302104999658778 0.0867238137361040 1.2333555584106062 157 38 16
0.1929314590572967 0.1126095880144264 1.1042432012842560 177 122 6
0.2176446650820113 0.0916412460778221 1.2773964027272242 249 173 10
-0.0773628688272916 0.3664956742494596 1.3478008059413622 240 225 202
0.1988641066926410 0.0957063882843980 1.3156178179358191 181 72 3
0.2344142751470762 0.1039974064762611 1.2762657357121183 189 123 47
0.0691448394028158 0.3013114534113240 0.9678010159572774 255 225 159
-0.2906035381804563 0.1985652448442465 1.1591850254998459 213 239 230
0.0975680942786158 0.1884043193869868 0.9668437971474478 241 212 170
0.1583378683168395 0.3350319089400017 1.3496245900677313 246 181 63
0.2538236327545864 0.2269760676775347 1.2917612536374314 221 151 1
0.0929493436727690 0.2010942011072970 0.9646134345395829 249 202 156
-0.1775518183051124 0.0904397605683523 1.2221805320090380 184 119 19
0.1516608794356062 0.0720122821892399 1.2933991791444768 183 89 0
0.0754146713777189 0.3972189802302838 0.9967475574466814 250 203 123
0.1072513012215523 -0.0115070009389110 0.9987338715192180 216 119 12
0.0609969409383984 0.0303721755864810 1.1622375433217853 170 120 71
0.1900897366537224 0.0746270746624849 1.2396621385291986 182 90 17
0.1054695501104991 -0.0087005105745135 0.9464460174717236 251 211 152
-0.1362898872923491 0.2760815235605951 1.2379904742748671 179 163 129
0.0884593280482135 0.2158566344955698 0.9644668042187318 153 92 11
0.1768860636333660 0.0161210645715984 1.0575510597440485 201 172 116
0.1118408699927530 0.0195560707228693 0.9210379287700312 234 126 2
0.0635537183818866 0.2528621716669343 0.9511798145154402 126 72 2
0.1520783713197797 0.3888681646312486 1.3531392043815342 203 119 3
0.0733297807961343 0.3574188776617419 0.9744687449812648 243 185 75
0.1242627154958026 0.0533006674970739 1.2271482241253491 185 89 5
0.1772301946193754 0.3004029473504963 1.1730070313879521 93 41 2
0.1419069507409504 0.0628592376454071 1.2552399867729787 180 76 3
0.1419069507409504 0.0628592376454071 1.2552399867729787 180 76 3
0.1046984442486531 0.0544864722507073 1.2769493298797314 180 81 0
0.1877945839331796 0.0628344848831356 1.1078121892535588 244 189 88
0.1975173306394158 0.0650142137321449 1.1683242411512880 255 205 87
0.1192032178289696 0.4460982768885307 1.1230940242384340 142 74 1
0.0790202907698980 0.2235156304255657 0.9570837279611746 236 214 167
0.1589442637219318 0.3997252932560453 1.1821351014614621 244 197 115
0.2256144053958818 0.3642536201812860 1.2570793484509635 182 130 20
0.0689879400756425 0.4475783115932971 1.0110313606764816 221 118 0
0.0689879400756425 0.4475783115932971 1.0110313606764816 221 118 0
0.0639859058827375 0.1019170455598449 0.9275050537463683 193 197 183
0.2500189828254865 0.1182397098695483 1.2972072863332391 210 133 0
0.2562471396110959 0.1735786337965958 1.2899940541341139 135 53 0
0.1472851246513882 0.0589421789059731 1.2307676309564288 190 84 0
0.2545807161128576 0.2146837224153767 1.2915491033553406 224 166 7
0.1448210810754487 0.0446466692036867 1.1528749646376641 168 100 15
0.2588435686084308 0.1994900857690881 1.2716372617978904 197 130 13
0.1326793210853179 0.0485181045645646 1.1860890198670861 255 194 37
0.2734685553882248 0.1376328193556036 1.2906347970683421 175 106 2
0.1695065288564421 0.0649853083935879 1.2325186555944236 255 234 143
0.2365849709326207 0.1014913301584129 1.2681602725341772 147 36 8
0.1850774754609499 0.0591806083342433 1.1216092010154144 197 109 9
0.1863926426774528 0.0772763585869860 1.2504729680831876 164 56 0
0.2243121628562941 0.2325895258124980 1.2256378822330545 218 205 171
0.1857589585755234 0.0658154081895532 1.1358453074606036 255 216 152
0.2489071823831223 0.1681583764732935 1.2465673177492864 228 214 179
0.1813373999675804 0.1724939890726221 1.1203699194442058 238 189 96
0.0629397267055699 0.4782160036700515 1.0098571410187529 251 192 116
0.1099183789994252 0.0537084347806463 1.2632347103881107 159 49 16
0.1394049317062943 0.4567708438473583 1.1706153302878517 220 147 34
-0.0756639920087129 0.0741436710637401 1.2208734533726719 180 129 66
0.1296484615295352 0.3998255330207516 1.0947491582185416 178 122 37
0.1529224883323208 0.4533972203679234 1.1884068985625060 255 211 150
0.1438540609466919 0.0567537688537241 1.2383512995467885 255 199 55
0.0927043305795000 0.4649261793104166 1.0437975510373367 248 208 156
0.1775418718879798 0.0592296313615820 1.1632100088910824 157 69 0
0.0493692203169589 0.0402536477253709 1.2640466219306132 187 79 0
0.1716370986863248 0.2525226872937295 1.1413049903181351 196 140 3
0.1211158733287031 0.2309218103367085 1.0228715066224425 233 220 203
0.1610978971625381 0.0538913098276232 1.1887777398400421 255 235 162
0.1337274370596855 0.2952952392328682 1.0570125209215939 245 215 165
0.2411815799500898 0.0973226780205981 1.2541643746680537 150 49 5
0.1941905506872736 0.1173024380115602 1.1178085986734598 45 22 6
0.0684932824791104 -0.0155688413262205 0.9202328375147322 228 230 225
0.0542158844263363 0.0315821248613470 1.2077848656943746 165 81 0
0.0841230407071307 -0.0223822755654070 1.0000787656147152 255 217 121
0.1476248613622445 0.0550405967951959 1.0081274109653890 163 104 26
0.1718421999479228 0.2572676549230127 1.1428495038914828 208 156 20
0.0119267372632646 0.0261238290839160 1.2269423885529069 254 210 53
0.1480870486926375 0.0590184957033916 1.0053187188024821 216 198 158
0.2401270633374677 0.1895213210249265 1.2414366888671484 142 115 62
0.1413412565426792 0.4488800323442458 1.1697289343947941 229 161 54
0.2328053034754822 0.4045783109708736 1.2926293551265844 225 159 72
0.1904280951350078 0.0673374409210345 1.1098482541813874 243 198 107
0.2620637253493157 0.1820971626404072 1.2767134783326364 196 146 23
0.2505409363781812 0.2741977666087504 1.2827287946901589 200 104 20
0.0849696905511327 0.0420542489939787 1.2422908756989857 250 190 44
0.1329475971324966 0.0484763840842140 1.1860499757674767 255 194 37
0.1584355711194342 0.0593983520322835 1.2222839867220774 255 209 107
0.2500865179551928 0.2958167381988207 1.2813246045874433 216 214 202
0.0430915532324163 0.0457410620594559 1.2806386422378437 186 91 11
0.1044575713738404 0.2832704693512046 1.0157484276666136 220 142 6
0.2054656988346976 0.0778466200596278 1.2500385505447420 254 197 110
0.2442783286658168 0.1522359324396579 1.2351692232590037 208 188 138
0.1058170880159427 0.1459397332988528 0.9624661362962369 226 212 165
0.1799383196922198 0.3686469208791657 1.3447587454172418 244 169 0
0.3692233319579329 0.2206740053928632 0.9918785215532380 206 105 0
-0.1300216477662757 0.3634464571567346 1.3080145954782734 192 149 54
0.1771022471422052 0.4417777213144136 1.2205945113066363 232 161 55
0.2084147957679426 0.2727757488721304 1.2119388704911371 228 231 214
0.0904987291978467 0.3467283761941475 1.0118941394069727 244 196 114
0.1388448056991752 0.2053705060933872 1.0487949916442949 233 219 192
0.0949592020961388 0.3978031739430616 1.0379021697192923 227 160 82
0.2169192870581766 0.2210738115365061 1.2016713484013755 249 235 206
0.1289153756918870 0.0601257768764127 1.2672296274780721 255 204 101
0.1891475187412150 0.3066342787747831 1.1982362310875938 232 223 206
0.1067055357955499 0.0049708183771811 0.9415548665790489 211 124 55
0.1381380522441116 0.1861008841595846 1.0326557546145716 196 124 3
0.1790404547619285 0.2394446075318898 1.1537350485234663 231 193 118
-0.1457801189460799 0.0591079136441805 1.1748683925313181 255 214 166
0.1302436525220411 0.4096555992247470 1.1442344046937305 173 126 54
0.0636159951831411 0.0176075673376708 0.8858449059812910 48 58 83
0.1631784208150225 0.0485047681179519 1.0307747225582176 149 95 25
0.0747513854103030 0.2949548349212140 0.9710056024705185 215 129 10
0.1482427465251745 0.0552409767325452 1.0081166118663194 163 104 26
0.1502435029000687 0.0121244206999154 0.9770035013265297 221 114 0
0.1614696435392831 0.2518387627100838 1.0941002628740724 221 156 54
-0.0236808204421333 0.0345497912066827 1.2433109363594086 254 167 25
0.2047272480792411 0.1523529449681313 1.1772527581416823 171 126 45
0.1340250114708328 0.2675538394725381 1.0582530045451446 186 118 7
0.2320325144087702 0.2381832096274701 1.2414327866912649 180 164 113
0.1905164713905160 0.0140389463051229 1.0670571315112325 255 255 250
0.1669343222657233 0.0845602705383746 1.0483495960954148 240 225 202
0.0895043967997177 0.2961427574906284 0.9910018926862971 255 245 204
-0.2811689268929138 0.1624933480389590 1.1192998281737068 160 75 0
0.2555882145733696 0.2056944384223671 1.2706691666084204 253 226 183
0.1138663895068785 0.0507200216002400 1.2413413466201058 252 196 77
0.0827290540778376 0.2311367162529598 0.9561145083205979 235 211 175
0.2111953910054901 0.1618786185920915 1.1875732830759560 231 196 130
0.0126103863350552 -0.0217014371307238 1.1070322909977515 251 208 140
0.0223449877662129 0.0360434682596408 1.2623130356012162 191 101 39
0.1186316987059274 0.4194010790892708 1.0688863936463529 237 206 162
-0.2667897881281764 0.2505673006802898 1.1278275981140280 107 104 73
0.1138663895068785 0.0507200216002400 1.2413413466201058 252 196 77
0.1017132158087516 0.3371265202550614 1.0224636930109208 228 159 64
-0.2399761202083438 0.0823047009923122 1.1068228623123824 206 118 28
0.2747649227453853 0.1336379919199050 1.2902231236195563 242 197 132
0.2081662391920900 0.1734441157510360 1.1837650660367005 217 172 57
-0.3024070322895376 0.2075993446057078 1.0968608073664825 156 87 0
0.1511742349442813 0.1059560166159355 1.0274220131890091 224 206 184
0.1317080359543271 0.0506993056691796 1.2176338621875009 251 211 53
0.1795734423178142 0.3241048250828694 1.1694260618604089 255 188 65
0.1517097052029781 0.0675202404746943 1.2614633290111432 228 159 81
0.1004448927249811 0.3914691576176714 1.0322539035567218 218 163 98
-0.2277540967130443 0.3024488283473060 1.2597595225259672 255 212 147
-0.1442879773497596 0.2305483493301994 1.2249857762930327 73 85 37
0.0199213973267576 -0.0166737842699015 1.1478912826410046 255 234 206
0.1192523573872960 0.1351470422580578 0.9732297739952177 187 145 63
0.1201362565442108 0.0783612152086421 0.9649035225941572 255 251 255
0.1116811848965485 0.3941918592927489 1.3640728337825918 229 167 84
0.1007072902791716 -0.0006961341103083 0.9340731142694697 255 255 250
0.1257877718696965 0.3109367530849326 1.0585988227818746 236 198 151
0.2290243813638893 0.0887858766810294 1.2075894303282602 248 178 67
0.1070405975871151 0.1591144311863923 0.9680313875279495 222 204 154
0.0913799573246156 0.4803201818569315 1.0476120982994623 253 198 133
0.1496385494871507 0.0509683853632673 1.1648659577913620 161 61 0
0.1541162703181175 0.0720456423026851 1.0228842899328641 137 88 11
-0.2834830574903335 0.0936655254915495 1.0812486312591372 252 177 58
0.1412020198497679 0.0655511811032938 1.2638749489642993 190 78 15
0.1300882893627681 0.2268289048540137 1.0409958136059485 236 218 180
0.1907840108604212 0.1966208764899624 1.1645556634465590 91 59 18
0.1907840108604212 0.1966208764899624 1.1645556634465590 91 59 18
-0.1191429576416112 0.0236864923410602 1.1687710479198266 255 213 144
0.2102791047572986 0.0787931567572693 1.2312009020564350 255 216 121
0.2596448924170652 0.1685404918929448 1.2875484541669489 189 124 0
0.1727135199788786 0.2191257199668066 1.1325854763463086 231 178 76
0.2265681527942708 0.0882768083941836 1.2281554960998791 255 204 113
-0.2918655533737675 0.3765285347596750 1.1555407443462418 236 177 77
-0.1959676386756199 0.0656549876228306 1.1411695613551374 248 186 103
0.1934721114132244 0.0770507760763123 1.2658262217514376 225 202 109
0.2226680652671234 0.3610329360778249 1.2507828325187149 218 220 209
-0.2554634242576405 0.3063936822843376 1.2575579556082566 231 216 195
0.2277363518996355 0.0866604128676355 1.1952288502341122 253 207 148
0.2085039242415322 0.1497688124212256 1.1826432535251978 222 207 166
0.2131720967911666 0.1594559100725535 1.1926048292049727 181 144 63
0.0768494771073777 0.4113868103922251 0.9987490211904967 249 206 151
0.1300882893627681 0.2268289048540137 1.0409958136059485 236 218 180
0.0639970326726225 -0.0398866218120453 1.0170607378658099 255 216 138
0.1463990789631374 0.0662788533932381 1.2849925380281297 255 204 124
0.1866884094635084 0.3521655124149931 1.1986105247932966 227 192 124
0.1737384508262565 0.0812611185057810 1.3060253367535808 143 40 0
0.2387844793239471 0.3220808656672411 1.2711893951807844 217 185 128
0.1082459043538983 -0.0098571006967086 0.9880772727862676 255 219 157
0.1447076303167534 -0.0030667469401575 1.0094988433708230 198 101 0
0.1186525472514960 -0.0137348969260008 1.0107892977930553 254 221 150
0.1161957342695082 0.0285180540459312 0.9247038252237029 241 221 188
0.0893307124555725 0.1673485853732594 0.9539255990649030 231 209 160
0.2162890510620290 0.3847336453697131 1.2404846656973079 3 0 0
0.0913742190893358 0.0368418996640464 1.1739883223822529 255 191 29
0.2217276764502758 0.3843536526336413 1.2640765569496066 171 127 52
0.0622057653458260 0.2754187706825545 0.9535282744864527 165 105 19
0.2230377234441580 0.2177609624173179 1.2174552688025853 93 81 55
-0.2394473209800639 0.3995400358379551 1.2491853707356755 251 189 56
0.1059308388441487 -0.0092609119245222 0.9457413860334242 243 220 186
0.2575214065581674 0.1159726277022762 1.2796930769236818 247 155 10
0.1428433020261430 0.1313299208479513 1.0117000422369111 232 227 208
0.1417724054665626 0.3715133794979709 1.0973857040246022 220 217 210
0.1307742683077778 0.4044596213185356 1.1063478331847769 69 35 0
0.1862339396824316 0.1871811594487393 1.1676957186682533 228 229 215
-0.1274341516777935 -0.0068148733662211 1.0633535258554214 207 105 20
0.1672357872218574 0.3071501329923988 1.1138877346505456 255 255 255
0.1490911320229450 0.0502808082031553 1.1688033506448401 254 187 34
0.2389092833371741 0.3024587976277086 1.3125901669022906 231 175 36
0.2360258989789322 0.3428203115398233 1.3051975442042263 186 104 0
0.2299867894948444 0.3946974484374143 1.3023091253712298 238 218 183
0.2534882027918319 0.2476024566794766 1.2928318988681364 173 96 4
0.2387915181917734 0.3303357566907186 1.3084008847430535 206 133 2
0.1845653526409926 0.0593585128239282 1.1538601218406759 190 108 6
0.1901640643235855 0.3292550772113275 1.3392924617310487 197 111 2
0.2469907369802190 0.2407089869222516 1.3045138294781418 76 21 1
0.2511124468168417 0.2460601351135590 1.2969849024202096 217 148 9
0.2101269524743743 0.0763939642120096 1.2205350445916501 255 205 85
-0.2023779397854222 0.1730401824432942 1.2443952163309606 252 195 46
0.2081877088321015 0.0790718250637077 1.2438360388405760 166 50 0
0.1478728033787337 0.0587465777921455 1.2155700448416880 230 116 53
0.2358843309388605 0.3201140184980221 1.3141832675221214 230 173 44
0.2136478112211248 0.3928604102880636 1.3279642417240261 148 69 3
0.2045309066425942 0.0626374853543419 1.1660766710480679 255 211 122
0.2316713662416951 0.1061822302339114 1.3033268498256663 244 210 113
0.1641475588611284 0.0789806434035326 1.3170381726359597 255 219 173
0.0596194787790233 0.3818481859856635 1.3638732304673014 248 185 44
0.2471557233973136 0.2326751908521348 1.3041630774604269 157 81 3
0.2417768912302418 0.2870277929702998 1.3073399634657765 143 89 0
0.0747705202902789 0.3173679814897166 0.9734715023010929 226 143 25
0.2002337180086502 0.0665987166035740 1.1743967775615454 243 144 0
0.2130137517927016 0.0802184723267721 1.2255061296872229 192 81 9
0.0750483447766374 0.0460582892796526 1.2593169786680574 161 48 8
0.2667712462189533 0.1584212110813568 1.2830450730101191 89 27 0
0.2045568766884947 0.0851419185771623 1.2597765983584857 255 192 49
0.2061581142024153 0.0703817233841046 1.1868363183865369 253 216 112
0.1281640777895408 0.0600140217452668 1.2671552160833779 255 204 101
0.1388777335164128 0.0677245302958675 1.2856334933099023 255 222 151
0.1967377209000871 0.0716219675568750 1.1524293340295344 223 131 46
0.1445283974885051 0.4336489304726986 1.1691482952587844 220 140 19
0.1803400021985201 0.1322684134380769 1.3417571980981264 205 162 70
0.1479737234109326 0.0639237241283767 1.2497572722475476 230 101 36
0.2303444860301848 0.4238927131756149 1.2991396749074684 193 126 13
0.1517665981812716 0.0511510600625525 1.1647578253463360 161 61 0
0.0886528515667041 0.3654605482637873 1.3642223664472868 209 123 2
0.1939555669080532 0.3348031453511257 1.2116035722048546 250 210 151
0.1041743375196875 -0.0015108802925910 0.9490255247083899 252 191 126
0.1180578622775278 0.0441276477926330 1.1734988341812633 255 200 74
0.2413839380294664 0.2836330139276167 1.3109138390369444 207 160 52
0.2415066309064113 0.1098045897894053 1.2063355911849492 252 254 241
0.1070085582121558 0.3284110710078579 1.0278785307403513 225 157 50
0.1150870838537239 0.0477783999129913 1.2248025253283108 169 56 0
0.2440772301954577 0.2081918334330242 1.2501153566724885 231 222 191
0.1915608555428852 0.3877551609909266 1.3399828294693834 211 127 0
0.1913153962715348 0.0645069048438871 1.1810898826805010 175 87 15
0.2439827080094036 0.2540018344435034 1.2732624559003667 218 188 136
0.1608252921464175 0.3953996327149176 1.1803127942870844 233 192 126
0.0587886401353908 0.0304438879152186 1.1752558170192884 255 190 57
0.1397974076561855 0.2007486571057990 1.0510951011409095 158 101 20
0.2276318617088736 0.1509944978762912 1.2105114577181975 217 203 168
0.2276318617088736 0.1509944978762912 1.2105114577181975 217 203 168
0.2509720591363158 0.1083548763404045 1.2205115120473069 253 174 56
0.1569771946450339 0.0777940450454836 1.3109608056663578 249 188 95
0.1006410079328205 0.2800806295703807 1.0087222406695413 142 81 0
0.1936371630678987 0.4236589698693057 1.2381671041816076 223 161 58
0.2625288383518461 0.1772336359457688 1.2772788868277369 237 209 159
0.1408669355832861 0.0731085824716775 0.9993284440880752 183 123 9
0.2335776194405719 0.1567231959887079 1.2207607040916069 157 132 66
0.2142680037521804 0.2859193238738622 1.2274288577449852 205 173 122
0.2488237260444764 0.1048407137831865 1.2408514332053617 209 123 10
0.0923358138432376 0.2688809635663635 0.9763767638746552 218 128 6
0.1048677302071222 0.2163838932799357 0.9915969432156047 229 200 144
0.4454028131190644 0.0890556391020074 0.9360228004447323 246 198 98
0.1952801784681977 0.0842103676298826 1.1111506192587768 205 161 56
0.0832433594053303 0.4077971728979815 1.0109619407393826 212 144 63
0.2043446192130114 0.3043621881577384 1.2190327385701536 210 178 121
0.2043446192130114 0.3043621881577384 1.2190327385701536 210 178 121
0.1443297351532118 0.2520658386798439 1.0696193670932366 177 112 8
0.1975524569479292 0.0942772463803577 1.3013384868946576 179 73 0
0.1991767680747612 0.1372231270781412 1.1641978228912260 224 195 135
0.0318872266554468 0.0240732996904216 1.1790860416975624 255 183 26
0.1997149494482216 0.0701919800291899 1.2112397231368630 249 211 126
0.1833555454782690 0.0797062169094016 1.2848083510516184 161 39 0
0.1617869667298646 0.0534326675339759 1.1723155200842965 174 89 8
0.2577506782198780 0.2116176903903169 1.2747439526854265 249 192 77
0.2137326708802888 0.2279951363684465 1.2006894944412350 233 229 218
0.2357903467119480 0.2790447533554538 1.2499367571321411 220 203 173
0.0702401016061172 0.0384832953844369 1.2317876527125751 180 59 0
0.2471733280786047 0.3223271003752796 1.2887490631054987 228 210 170
0.1311985514796606 0.4146530661718665 1.1428258626700678 204 164 92
0.2539200253963276 0.1109981808544267 1.2761522295871981 159 78 15
-0.2298124670864981 0.1358099563420017 1.1670003811584608 145 91 27
-0.2159639359897502 0.1646526043234716 1.2223124511112360 171 114 24
0.1337678848902729 0.0562917267770749 1.2294731837215087 255 185 50
0.0626438597856094 0.0467975200864564 1.2810634372866485 195 80 0
0.1643061156978214 -0.0116171598848062 1.0342689213687373 236 231 212
0.0854500108216596 0.3774128122385718 1.0083692062531437 249 209 147
0.1786451562324282 0.0620342477546530 1.1724049658403017 162 84 0
0.1101457437870883 0.1150041192254296 0.9616784263942441 164 107 17
0.1191588083355108 0.4544328574016008 1.0783952569487827 253 194 92
0.2598366889342289 0.1195988650569405 1.2936095894256556 241 181 61
-0.0735803088837805 0.0036307668496685 1.1923504398809492 240 132 0
0.1449063112325682 0.1480442755595333 1.0223144133158553 226 192 121
0.1839082807420262 0.0625562954746242 1.1864777258779313 254 187 70
0.1824089086008990 0.0874289490436158 1.3216315195367871 164 82 0
0.1190740719462285 0.2216623281555827 1.0144300665287977 245 209 149
0.0751555447081840 0.0378251453104633 1.2200101975141839 187 74 4
0.1542544067603303 0.0410401738498492 0.9981091106174623 95 51 0
-0.2187142361582641 0.1550941173744894 1.2191761324160926 254 186 51
0.0990955834696661 0.0428521257208656 1.1765700012042990 176 70 0
0.0397818696084631 -0.0326958136455458 1.0388183958882020 201 108 41
0.1113702562136714 0.2330399716607844 1.0091622655444856 208 145 48
0.0557322257853157 0.0291172645906143 1.2031042795401203 255 191 24
0.2373112580127774 0.1843091772526684 1.3095442469654446 143 68 3
0.1075201216281644 0.0726407674322849 0.9415584364444207 148 111 31
0.1173014591083233 0.0467881429591545 1.2045330671519334 255 196 65
0.1971217728533179 0.0934701490976933 1.1202291537602325 204 156 58
0.2114831831270783 0.4536642916811806 1.2873769368546160 249 188 97
0.1547277648687106 0.3947385979783000 1.1684064660474012 227 193 130
-0.2685489214462241 0.1659403284293705 1.1416892752418146 153 86 0
0.0844127734127660 0.0364157160478533 1.2055537790429840 255 184 22
0.1445643448293967 0.4042026047526354 1.1624138263187078 173 131 59
0.0731475575050772 0.0481972441337608 1.2770316656442109 255 181 17
0.2142680037521804 0.2859193238738622 1.2274288577449852 205 173 122
0.1028993115174735 0.3996238012367386 1.0422350959216637 242 210 161
0.1167587557271950 -0.0042318788295201 0.9927282734831084 219 136 68
0.1360831962627228 0.3834431984717529 1.0877060168628385 150 127 86
0.1408669355832861 0.0731085824716775 0.9993284440880752 183 123 9
0.2492044531108605 0.1762586582658484 1.2526316589266986 170 141 65
0.1161021571783709 0.1038235599921617 0.9618820234358266 227 188 123
0.2285457475495643 0.3423406272793611 1.3127957094701215 163 81 0
0.1482371881983003 0.0004839658560125 1.0057618207537466 185 95 9
0.1806720239391369 0.0613949171094460 1.1825869752176310 185 90 0
0.1044367563871965 0.1161241060026845 0.9549696548759321 251 238 196
0.1327309691054583 0.1979580866530633 1.0255079295455884 222 205 179
0.0901112748336925 0.0475762664635285 1.2541498942401426 255 188 48
0.1696200827658999 0.3797137821187442 1.1868424580138361 214 176 105
0.2297114403596151 0.3150152290058242 1.2555030162749456 222 177 109
0.1273457345141124 0.4537284511497835 1.1416192403939396 231 195 137
0.1479909220713037 0.1935049295797497 1.0586347980413746 226 220 204
0.1697863629386768 0.3634356824715336 1.1811455275201614 79 32 2
-0.2241466684157465 0.0757791781773283 1.1144304664617970 247 167 82
0.1767514206163423 0.0716427657312161 1.2425531552302354 172 63 6
0.1681123015778875 0.0752652128072785 1.2816131393351988 246 164 36
0.1785086984861246 0.3817482783276998 1.2026162248296008 217 178 109
0.1958328903509466 0.0768443384498853 1.2429032783177032 255 207 103
0.1206545033130627 0.1382174479009021 0.9726898663099321 205 151 51
0.2557656406649294 0.1766350977816527 1.2623385690379403 175 138 68
0.2165191128588872 0.3851358263621825 1.2469411643517367 227 228 222
0.1900970764250883 0.4621258260881513 1.2497287071661660 182 131 84
-0.1496083683970175 0.0902239470334095 1.2072090167072278 219 164 71
0.2432477218809984 0.2187434734814768 1.3071695548900337 229 169 37
0.0692114057186468 0.0344079357445570 1.2240873621356998 254 212 104
0.1569414226377074 0.0564910137284307 1.2034758990711423 186 88 25
0.1110743140377557 0.1108632065311530 0.9625079310940210 161 93 12
0.1413412565426792 0.4488800323442458 1.1697289343947941 229 161 54
0.1612806580745147 0.0542951428192027 1.1889668499169703 255 211 96
0.0797521453032985 -0.0161072517003163 0.9758670480522437 203 116 1
0.1824389786831769 0.4639579804785087 1.2354850379251894 189 135 73
0.0491859200710527 0.0342477948269503 1.2376003575403314 252 179 0
0.1455650666491899 0.0716295294286334 1.2809184950673984 183 74 5
0.2348235111290541 0.1742442554791718 1.2276306835431716 228 230 208
0.1340992064746683 0.0244883211304886 0.9429417783549178 240 221 191
0.0729487792890101 0.3394083521688195 0.9790219577613665 186 87 2
0.1208634994148582 0.0482049466610523 1.1979869419048663 167 71 0
0.0719014447472424 0.4351511650939217 1.0071118284918006 228 141 0
0.1227298964929632 0.2440280802534538 1.0345397661911986 202 135 30
0.2402904019080561 0.2862942646883986 1.3153548633329251 221 168 28
0.1725003033109315 0.3658326455109968 1.1803952054234408 91 44 0
0.1463748654091767 0.2267548813426498 1.3346991292317578 30 2 0
0.2327850596923851 0.1708924114254871 1.2945895395760287 129 68 3
0.0533422785317008 0.0278571692345375 1.1884721113311543 171 74 0
0.2167946433346790 0.2120270461389764 1.3254708667733739 79 47 8
0.1749426544052219 0.2181261799181747 1.1308924481126805 209 198 178
0.0443430479468652 -0.0390769244979594 1.0259804962277443 238 148 0
-0.2107900222899290 0.1420694455923688 1.2297648978996758 247 216 169
-0.2390859355982393 0.1377493876647959 1.1800758563208358 194 140 6
-0.1179062852725020 0.0230687749617749 1.1704653577773423 255 229 185
-0.2920906978904751 0.4382123709626077 1.1622409886495817 153 75 0
-0.2322831991260119 0.1560879846500934 1.1949069587368006 214 151 45
-0.2168943475825550 0.1802308842194374 1.2281006819427911 199 151 87
0.2476891721804632 0.2530032029229186 1.3015885815644894 199 156 64
-0.2988942999534819 0.1588593701735846 1.0837539951241064 211 151 55
0.0484600000583388 0.3117405305539470 1.3494093697291785 216 136 0
-0.2884340766701302 0.4055589311329046 1.1675202828270594 142 73 0
-0.3053099173416439 0.4280758684977043 1.1401571209791206 243 199 112
0.1315643050821662 0.0439972407892350 1.1650131772625070 244 163 56
0.1250917682839965 0.0883381625509593 1.3312596445676415 245 167 17
-0.3119910502843558 0.4305948847596422 1.1275165111139358 220 140 29
-0.2402635502753323 0.3015427382727099 1.2639620174107387 219 212 196
-0.2997948886890468 0.3678908798435526 1.1365087131241731 192 137 47
-0.0580918595722079 -0.0054779613273108 1.1594494022242845 255 191 66
-0.2596774564238211 0.4254158987940362 1.2199682098712876 235 173 72
0.1232647864104543 0.1345885879029632 1.3396636113212184 146 96 23
-0.0002091307535040 0.1324802903586131 1.2924420816572970 237 183 51
-0.2337316416848190 0.1262764337744527 1.1915432868082962 179 132 62
-0.1012311711579095 0.3661987258484197 1.3341651142497135 222 188 117
-0.2135278133172052 0.2390210850578353 1.1396317426395510 219 222 201
-0.0373467065338521 0.1158870027925663 1.2610370907760129 153 88 6
-0.2897501415203141 0.3766676394968578 1.1618903513937835 164 118 59
-0.3018176380828494 0.3802291527037938 1.1373135676348354 136 78 32
-0.2832196962843948 0.3517724320004858 1.1649003957929160 193 184 167
-0.3229724063662915 0.3031897731425994 1.1680975569629470 167 164 149
-0.2398697361356291 0.4038225580110406 1.2466893583626388 101 49 2
-0.1327203378463176 0.1303846147438901 1.2083063194103338 160 88 3
-0.0491435772356377 0.0255178742694685 1.2081961413716402 228 123 0
-0.1336469573778849 0.0039096483167145 1.0999673516018103 247 239 218
0.1642796686521622 0.1508974729287489 1.3402188558678121 221 194 151
-0.2975654726445169 0.2396711694487953 1.1161571645572452 153 131 84
-0.3089658929895572 0.2555456914686585 1.1025310020654364 214 170 97
0.2537737551049680 0.1117040409896281 1.2682309653951522 242 204 168
-0.2585709435825060 0.4309144521218456 1.2203848155151722 203 101 0
-0.0328833209265956 0.1065137113117458 1.2702123598427526 220 213 207
-0.0402525090377841 0.1094250270638884 1.2615560790456981 234 200 129
-0.2857980258823402 0.0929106268309542 1.0692831967982777 244 177 98
-0.1299234392055797 0.1191652292077448 1.2020917353105627 245 169 5
-0.1202836049129690 0.4105118159753036 1.3251672041265818 199 164 100
-0.3004714797326764 0.4179201933106197 1.1521111133281565 176 99 0
0.0555863280968727 0.2067769117162916 1.3381565988861059 210 118 0
-0.2435578982628147 0.4159047391230980 1.2451221010224249 255 191 71
-0.3157976193957340 0.2617609666290621 1.1752713347693802 205 160 101
-0.1359133330067839 0.0566626303346404 1.1492886558298254 184 118 40
-0.0481127689941861 0.0071273215253895 1.1912399125018371 237 162 47
-0.3143785400142436 0.2990899567538003 1.1874570198637655 85 51 14
-0.2727990851159557 0.4309308453487986 1.2008249819167847 201 101 3
0.2140288447483933 0.4397127299070695 1.3253251651991507 229 171 63
-0.2293078564145108 0.2162889015249444 1.1178893265143386 44 49 26
-0.2682752052667582 0.4309572640623947 1.2095976426593635 215 110 5
-0.2755367960137725 0.4426274102726356 1.2040388754567937 255 224 196
-0.2830053299638051 0.4372346546221361 1.1818467026135686 149 59 0
-0.2942128231429382 0.1699738760257430 1.1018219184035698 192 113 0
-0.2026079292067216 0.0676334628031426 1.1487686045168359 250 244 210
-0.2801919410990359 0.3533995328140323 1.1701926484139442 111 62 22
-0.2379651661329142 0.0756274615782206 1.1496114809773801 176 95 42
-0.2900724553056979 0.4072370978650985 1.1738649839083772 245 171 24
0.0789223002455192 0.2122942753320340 1.3435441641244898 199 96 3
-0.2864852342625915 0.1951645677972832 1.1136264907817952 183 160 126
-0.3012976925087136 0.4171339049548773 1.1397226021668259 245 202 133
0.1483252216004320 0.0504126686745468 1.1740308095590766 197 133 87
-0.1079386880741818 0.0414944761039153 1.1321600079678746 172 72 0
-0.2123278265993148 0.2981471528141883 1.2652994840295746 254 208 148
0.1771147724302705 0.0608931781667265 1.1877824707026761 208 108 33
-0.3031444426034615 0.3770253904063481 1.1245572380954691 230 214 198
0.1257942841961591 0.3638690954269480 1.3572278738061234 210 130 7
0.0321721093782806 -0.0293122111770857 0.9204150834575979 249 220 188
-0.2864184776567416 0.3669894901493003 1.1644102817258337 208 196 174
-0.3092718406831065 0.4241308080891594 1.1320469408533120 244 215 171
-0.2157737442912479 0.4152498125742539 1.2756081109304924 237 151 30
-0.3119128848312759 0.4474080561488906 1.1396439909747687 229 148 17
-0.3054921124353278 0.2116170890970442 1.1006385582165465 133 79 7
-0.0966710545748942 0.3699110906138868 1.3414333261160412 92 51 5
-0.2643872631440033 0.4381619411690653 1.2290777383244040 184 124 64
-0.1434485541065859 0.0223358270743607 1.0584538115770195 207 107 13
-0.2848754410713291 0.3843929898854027 1.1730337174118701 236 194 118
0.0481942847097572 -0.0429682005091171 1.0233454117378153 246 203 124
-0.2295279093843690 0.0796456878203566 1.0668810825687391 255 186 70
-0.3201641609132485 0.3299901392476657 1.1295883077223317 204 156 80
-0.2335518929883278 0.2282405315988470 1.1189126990299980 52 53 39
-0.2863334139308263 0.1341199036144312 1.1070989399845679 150 94 37
-0.2862625671084844 0.2768381318166830 1.2330161328046645 50 9 0
-0.3025663938175864 0.2432232216253008 1.1096368282931646 146 92 18
-0.1711452297574121 0.0659307814281897 1.0604750436462012 255 207 139
-0.1550042039208937 0.0606604319461873 1.0534219641171456 204 100 47
-0.2813600984245694 0.1393371616379923 1.1086265056575364 186 125 0
-0.3116582424621995 0.2576255499734774 1.0964863939773466 105 62 9
0.2322022452233916 0.3281529430762294 1.3158134471947103 151 89 14
-0.3116582424621995 0.2576255499734774 1.0964863939773466 105 62 9
-0.1836335481370148 0.0620530220164470 1.1403564562964426 250 202 153
0.0535288659069215 0.2726332891002141 1.3458381517196976 253 192 77
-0.2000065951086164 0.0696421365943089 1.0817124942686851 229 138 57
-0.2571893043346950 0.1595016579838205 1.1568572451199237 173 107 31
-0.2844499988893673 0.3956960356324113 1.1760005664353894 223 165 65
-0.2181265172621729 0.0730684746605680 1.0848773042455135 255 203 63
-0.2585516442056230 0.3242243693326559 1.0563687764042085 188 77 6
-0.2733286673270519 0.2714797034034644 1.2394978309139957 120 105 82
0.0944257995220359 -0.0301261716002118 1.0977933527025574 241 142 0
-0.2905088750197225 0.1108835306939181 1.1205667236898129 250 252 241
-0.3311386297615506 0.3019615050835218 1.1589963463471371 147 136 116
-0.0683189440205682 -0.0049433267269111 1.1721565344622851 237 143 19
-0.0511903356515937 0.0021293884232109 0.9704521112572313 255 203 103
-0.2212244352521559 0.0714164290981689 1.1229787746523057 237 107 19
0.0062112278979504 -0.0178406492915656 1.1128929627837303 209 127 53
-0.0786822290427473 -0.0172331801119281 1.0250631594966604 251 208 104
0.2489504589287532 0.1102927092520880 1.2583642466600167 171 86 31
-0.0934309063389026 0.0022225078127061 1.1611381464420352 255 192 65
-0.0616392938695566 0.0635504851894621 1.2300010920660067 246 217 161
-0.2084353048459146 0.2271765980606157 1.1472717202546348 88 93 61
-0.2134382261960723 0.2348166640297478 1.1413738656125987 22 21 0
-0.3076565235211169 0.2739130231357509 1.0912871186864626 239 180 64
-0.0890385978790192 -0.0204117102445594 1.1053154494765631 116 54 13
-0.2886415065649728 0.3471808611906375 1.1576710357431117 134 63 7
-0.2190561565903911 0.2351331491510465 1.1307646090921897 212 216 201
-0.2170186395666181 0.2361043139963263 1.1305343801302725 191 206 199
-0.1100427670937134 0.1735526765092572 1.2211077239512866 192 115 0
-0.2527089047422145 0.0879560121880278 1.0578638931694939 255 193 105
-0.3123421013527440 0.4178343157251956 1.1276911285361453 238 212 177
-0.2515373359223054 0.2591681497482156 1.0403011772904358 154 57 0
0.0943291597383436 0.0524096098809495 1.2751166960940250 252 202 51
-0.0550820884976718 -0.0078592242018693 1.1660135999153218 255 190 106
-0.0413402832829160 -0.0137747634459441 1.1448474444878192 253 239 174
-0.2831741613840970 0.3812068739114150 1.1703076403014290 168 106 33
-0.2258008651357836 0.2367006129043968 1.2406099834497992 209 132 40
-0.1086012331685762 -0.0017530732023768 1.1396366126336850 244 231 214
0.1399257402404551 0.0691647420010604 1.2744649270079116 186 74 8
-0.0770191650386037 0.0132229354246905 0.9725062751881276 255 202 82
-0.2627487027099956 0.4349685638787650 1.2194592576085181 238 161 47
-0.2031956654840637 0.2091188451971941 1.1545402313555637 9 14 0
-0.2390753402515681 0.2421285700826090 1.2191958343904383 254 197 92
-0.0912123250882192 -0.0000347290574635 1.1651637550231186 192 94 5
-0.2137888756635013 0.1147807404982408 1.2279734171184782 223 197 160
-0.1091035886593191 0.3627891551632585 1.3280133398413450 123 86 31
0.2220173070049089 0.2501264008395853 1.3198433841269090 102 78 52
-0.1620022368636543 0.1196713898129090 1.2248170674906813 0 1 3
-0.2240358548751397 0.2467672296555672 1.1837977074502617 183 171 111
-0.2909077770287803 0.4404626797211511 1.1730210438457449 255 200 133
-0.2696886363639991 0.1475460890434749 1.1350723276325783 239 214 150
0.0848003464229635 0.0412229496296682 1.2226283179542132 255 191 80
-0.1981236353473690 0.4315884485528216 1.2855243207689619 236 149 0
-0.3129108123969579 0.3363643149106587 1.1071521001616202 186 132 32
-0.3089159189433137 0.1225790572610077 1.0648926418091234 214 179 125
-0.0909451758701944 0.0097498255428889 0.9963074926047037 174 101 22
-0.2619664793364301 0.1537095932548562 1.1392006078423558 171 112 54
0.0684848153547013 0.1644583983403779 1.3348754251647825 217 173 84
-0.2661373689820836 0.1564963716889385 1.0421766121951781 238 173 0
-0.2487523416018149 0.1929588674685301 1.0248475029433974 237 197 102
-0.1541094374840440 0.0591814776638836 1.1916588042575367 185 109 51
0.0718115317688135 -0.0399053452922635 1.0852214084028247 255 225 83
-0.2813385199889169 0.4095140150326128 1.1804323242355332 242 186 93
-0.2881679237277880 0.4131088375146955 1.1676943053684383 246 192 96
0.1947118511600182 0.2007477165284909 1.3323851741957953 229 152 0
-0.0091539489990495 0.0205270554258836 1.1937766670274967 203 115 43
-0.2360131809614151 0.2479938766052033 1.2438404427561849 244 204 152
-0.2969232946782005 0.4271305001167944 1.1617763044119438 255 215 153
-0.2649383322819688 0.2670144021071491 1.2537881643316848 100 79 58
-0.2607661043725399 0.0887406825961541 1.0679905010200361 197 112 58
-0.1872333160936386 0.1393396477427513 1.2363098959877006 245 221 185
-0.3065580381848262 0.1852625882435661 1.0790506025804383 214 143 0
-0.1682089368522932 0.2554019796684260 1.2344173425147777 4 0 0
-0.2779554693151606 0.1287138000220979 1.1302416154479673 191 113 2
0.2096354077523196 0.2958743287427225 1.3196118768989216 6 0 0
-0.3130929636830296 0.3799993390851067 1.1112229676832712 218 171 89
-0.0840011844707538 0.2293800256594432 1.2437441840039385 163 96 9
-0.2578252300324353 0.3346859790370120 1.2345154073868605 98 52 19
-0.2779554693151606 0.1287138000220979 1.1302416154479673 191 113 2
-0.0196663492345190 -0.0162635744534426 1.1255546929772771 198 94 9
-0.0782152394278524 -0.0187877809930665 1.1130310944363535 247 202 145
-0.0972023987562290 0.3516578236886956 1.3301873248704907 217 209 188
-0.2533708632841593 0.1404173215144945 1.1531607794848664 244 208 146
-0.0629545349567674 -0.0052485734954444 1.1560016397928541 255 163 12
0.1237655794009883 0.0704626834922007 1.3243711003922145 241 211 187
-0.1399179113554392 0.0109296888418991 1.0853901007240492 206 173 138
-0.3012239879595718 0.1509877523139066 1.0798245430654172 230 216 189
-0.3322868855000419 0.2705385878133838 1.1399056925952751 236 214 175
-0.1962815555265583 0.2145047511829242 1.1608111818897933 206 212 184
-0.1468356865975613 0.0230677085174440 1.0528096490332286 212 120 37
-0.1962815555265583 0.2145047511829242 1.1608111818897933 206 212 184
-0.1524039702453105 0.0583844938148134 1.1320684194391970 211 151 88
0.0631227442186282 0.2613438837092368 1.3464593207422382 248 182 72
-0.3127451456008659 0.3499142079228538 1.1185762884393735 230 195 129
-0.2351891554344172 0.2328606197934747 1.1324281357390336 159 162 143
-0.2571167543149795 0.3559838138114051 1.1773009718919614 212 208 196
-0.2908428345641410 0.4271408861756542 1.1670912755278722 156 69 0
-0.0487512710965798 -0.0233167256837511 1.0892962816765168 249 176 35
-0.2852656688034926 0.2078254022358751 1.1404241519716185 155 163 124
-0.0725082267232620 0.0345151960673079 1.2103014494782065 212 115 0
-0.3188267246969174 0.3367391591469989 1.1329988456907392 100 39 0
-0.2043569784505319 0.1951176397934928 1.1715546650235023 4 0 0
-0.1202939497062574 0.0252642114621961 1.1192978844928456 248 236 224
-0.2822195174429547 0.3822706253400835 1.1922571653103160 236 237 231
0.2004746177092530 0.1594259089826503 1.3298963606289336 136 56 3
-0.1458705317741361 0.0109245374042532 1.0949755407871704 209 182 161
0.2486670029215829 0.2606026536122068 1.3002630721753670 133 89 0
0.2551279054876979 0.1400491913812661 1.3110973734495190 184 135 56
0.1937768675527443 0.0824565388048989 1.1065592059076754 173 146 57
0.2486617364980873 0.2397058022858347 1.3008597615662227 214 155 29
-0.2069961879144598 0.2336680994930384 1.1488355364560330 20 19 1
